-1112.000000 -72.000000 -1157.000000
-1113.361873 -72.226979 -1158.446990
-1114.723747 -72.453958 -1159.893981
-1116.085620 -72.680937 -1161.340971
-1117.447494 -72.907916 -1162.787962
-1118.809367 -73.134894 -1164.234952
-1120.171240 -73.361873 -1165.681943
-1121.533114 -73.588852 -1167.128933
-1122.894987 -73.815831 -1168.575924
-1124.256861 -74.042810 -1170.022914
-1125.618734 -74.269789 -1171.469905
-1126.980607 -74.496768 -1172.916895
-1128.342481 -74.723747 -1174.363886
-1129.704354 -74.950726 -1175.810876
-1131.066227 -75.177705 -1177.257867
-1132.428101 -75.404683 -1178.704857
-1133.789974 -75.631662 -1180.151848
-1135.151848 -75.858641 -1181.598838
-1136.513721 -76.085620 -1183.045829
-1137.875594 -76.312599 -1184.492819
-1139.237468 -76.539578 -1185.939810
-1140.599341 -76.766557 -1187.386800
-1141.961215 -76.993536 -1188.833791
-1143.323088 -77.220515 -1190.280781
-1144.684961 -77.447494 -1191.727771
-1146.046835 -77.674472 -1193.174762
-1147.408708 -77.901451 -1194.621752
-1148.770582 -78.128430 -1196.068743
-1150.132455 -78.355409 -1197.515733
-1151.494328 -78.582388 -1198.962724
-1152.856202 -78.809367 -1200.409714
-1154.218075 -79.036346 -1201.856705
-1155.579949 -79.263325 -1203.303695
-1156.941822 -79.490304 -1204.750686
-1158.303695 -79.717283 -1206.197676
-1160.000000 -80.000000 -1208.000000
-1160.000000 -82.000000 -1208.000000
-1160.000000 -84.000000 -1208.000000
-1160.000000 -86.000000 -1208.000000
-1160.000000 -88.000000 -1208.000000
-1160.000000 -90.000000 -1208.000000
-1160.000000 -92.000000 -1208.000000
-1160.000000 -94.000000 -1208.000000
-1160.000000 -96.000000 -1208.000000
-1160.000000 -98.000000 -1208.000000
-1160.000000 -100.000000 -1208.000000
-1160.000000 -102.000000 -1208.000000
-1160.000000 -104.000000 -1208.000000
-1160.000000 -106.000000 -1208.000000
-1160.000000 -108.000000 -1208.000000
-1160.000000 -112.000000 -1208.000000
-1159.491087 -113.526740 -1209.187465
-1158.982173 -115.053480 -1210.374929
-1158.473260 -116.580220 -1211.562394
-1157.964347 -118.106960 -1212.749858
-1157.455433 -119.633700 -1213.937323
-1156.946520 -121.160440 -1215.124787
-1156.437606 -122.687181 -1216.312252
-1155.928693 -124.213921 -1217.499716
-1155.419780 -125.740661 -1218.687181
-1154.910866 -127.267401 -1219.874645
-1154.401953 -128.794141 -1221.062110
-1153.893040 -130.320881 -1222.249574
-1153.384126 -131.847621 -1223.437039
-1152.875213 -133.374361 -1224.624503
-1152.366300 -134.901101 -1225.811968
-1151.857386 -136.427841 -1226.999432
-1151.348473 -137.954581 -1228.186897
-1150.839560 -139.481321 -1229.374361
-1150.330646 -141.008061 -1230.561826
-1149.821733 -142.534801 -1231.749290
-1149.312819 -144.061542 -1232.936755
-1148.803906 -145.588282 -1234.124219
-1148.294993 -147.115022 -1235.311684
-1147.786079 -148.641762 -1236.499148
-1147.277166 -150.168502 -1237.686613
-1146.768253 -151.695242 -1238.874077
-1146.259339 -153.221982 -1240.061542
-1145.750426 -154.748722 -1241.249006
-1145.241513 -156.275462 -1242.436471
-1144.732599 -157.802202 -1243.623935
-1144.223686 -159.328942 -1244.811400
-1143.714773 -160.855682 -1245.998864
-1143.205859 -162.382422 -1247.186329
-1142.696946 -163.909162 -1248.373793
-1142.188032 -165.435903 -1249.561258
-1141.679119 -166.962643 -1250.748722
-1141.170206 -168.489383 -1251.936187
-1140.661292 -170.016123 -1253.123651
-1140.152379 -171.542863 -1254.311116
-1139.643466 -173.069603 -1255.498580
-1139.134552 -174.596343 -1256.686045
-1138.625639 -176.123083 -1257.873509
-1138.116726 -177.649823 -1259.060974
-1137.607812 -179.176563 -1260.248438
-1137.098899 -180.703303 -1261.435903
-1136.589986 -182.230043 -1262.623367
-1136.000000 -184.000000 -1264.000000
-1137.970061 -184.000000 -1264.344761
-1139.940122 -184.000000 -1264.689521
-1141.910183 -184.000000 -1265.034282
-1143.880244 -184.000000 -1265.379043
-1145.850305 -184.000000 -1265.723803
-1147.820366 -184.000000 -1266.068564
-1149.790427 -184.000000 -1266.413325
-1151.760487 -184.000000 -1266.758085
-1153.730548 -184.000000 -1267.102846
-1155.700609 -184.000000 -1267.447607
-1157.670670 -184.000000 -1267.792367
-1159.640731 -184.000000 -1268.137128
-1161.610792 -184.000000 -1268.481889
-1163.580853 -184.000000 -1268.826649
-1165.550914 -184.000000 -1269.171410
-1167.520975 -184.000000 -1269.516171
-1169.491036 -184.000000 -1269.860931
-1171.461097 -184.000000 -1270.205692
-1173.431158 -184.000000 -1270.550453
-1175.401219 -184.000000 -1270.895213
-1177.371280 -184.000000 -1271.239974
-1179.341341 -184.000000 -1271.584735
-1181.311401 -184.000000 -1271.929495
-1183.281462 -184.000000 -1272.274256
-1185.251523 -184.000000 -1272.619017
-1187.221584 -184.000000 -1272.963777
-1189.191645 -184.000000 -1273.308538
-1191.161706 -184.000000 -1273.653299
-1193.131767 -184.000000 -1273.998059
-1195.101828 -184.000000 -1274.342820
-1197.071889 -184.000000 -1274.687581
-1199.041950 -184.000000 -1275.032341
-1201.012011 -184.000000 -1275.377102
-1202.982072 -184.000000 -1275.721863
-1204.952133 -184.000000 -1276.066623
-1206.922194 -184.000000 -1276.411384
-1208.892255 -184.000000 -1276.756145
-1210.862316 -184.000000 -1277.100905
-1212.832376 -184.000000 -1277.445666
-1214.802437 -184.000000 -1277.790427
-1216.772498 -184.000000 -1278.135187
-1218.742559 -184.000000 -1278.479948
-1220.712620 -184.000000 -1278.824709
-1222.682681 -184.000000 -1279.169469
-1224.652742 -184.000000 -1279.514230
-1226.622803 -184.000000 -1279.858991
-1228.592864 -184.000000 -1280.203751
-1230.562925 -184.000000 -1280.548512
-1232.532986 -184.000000 -1280.893273
-1234.503047 -184.000000 -1281.238033
-1236.473108 -184.000000 -1281.582794
-1238.443169 -184.000000 -1281.927555
-1240.413230 -184.000000 -1282.272315
-1242.383290 -184.000000 -1282.617076
-1244.353351 -184.000000 -1282.961836
-1246.323412 -184.000000 -1283.306597
-1248.293473 -184.000000 -1283.651358
-1250.263534 -184.000000 -1283.996118
-1252.233595 -184.000000 -1284.340879
-1254.203656 -184.000000 -1284.685640
-1256.173717 -184.000000 -1285.030400
-1258.143778 -184.000000 -1285.375161
-1260.113839 -184.000000 -1285.719922
-1262.083900 -184.000000 -1286.064682
-1264.053961 -184.000000 -1286.409443
-1266.024022 -184.000000 -1286.754204
-1267.994083 -184.000000 -1287.098964
-1269.964144 -184.000000 -1287.443725
-1271.934204 -184.000000 -1287.788486
-1273.904265 -184.000000 -1288.133246
-1275.874326 -184.000000 -1288.478007
-1277.844387 -184.000000 -1288.822768
-1279.814448 -184.000000 -1289.167528
-1281.784509 -184.000000 -1289.512289
-1283.754570 -184.000000 -1289.857050
-1285.724631 -184.000000 -1290.201810
-1287.694692 -184.000000 -1290.546571
-1289.664753 -184.000000 -1290.891332
-1291.634814 -184.000000 -1291.236092
-1293.604875 -184.000000 -1291.580853
-1296.000000 -184.000000 -1292.000000
-1298.000000 -184.000000 -1292.000000
-1300.000000 -184.000000 -1292.000000
-1302.000000 -184.000000 -1292.000000
-1304.000000 -184.000000 -1292.000000
-1306.000000 -184.000000 -1292.000000
-1308.000000 -184.000000 -1292.000000
-1310.000000 -184.000000 -1292.000000
-1312.000000 -184.000000 -1292.000000
-1314.000000 -184.000000 -1292.000000
-1316.000000 -184.000000 -1292.000000
-1318.000000 -184.000000 -1292.000000
-1320.000000 -184.000000 -1292.000000
-1322.000000 -184.000000 -1292.000000
-1324.000000 -184.000000 -1292.000000
-1326.000000 -184.000000 -1292.000000
-1328.000000 -184.000000 -1292.000000
-1330.000000 -184.000000 -1292.000000
-1332.000000 -184.000000 -1292.000000
-1334.000000 -184.000000 -1292.000000
-1336.000000 -184.000000 -1292.000000
-1338.000000 -184.000000 -1292.000000
-1340.000000 -184.000000 -1292.000000
-1342.000000 -184.000000 -1292.000000
-1344.000000 -184.000000 -1292.000000
-1346.000000 -184.000000 -1292.000000
-1348.000000 -184.000000 -1292.000000
-1350.000000 -184.000000 -1292.000000
-1352.000000 -184.000000 -1292.000000
-1354.000000 -184.000000 -1292.000000
-1356.000000 -184.000000 -1292.000000
-1358.000000 -184.000000 -1292.000000
-1360.000000 -184.000000 -1292.000000
-1362.000000 -184.000000 -1292.000000
-1364.000000 -184.000000 -1292.000000
-1366.000000 -184.000000 -1292.000000
-1368.000000 -184.000000 -1292.000000
-1370.000000 -184.000000 -1292.000000
-1372.000000 -184.000000 -1292.000000
-1374.000000 -184.000000 -1292.000000
-1376.000000 -184.000000 -1292.000000
-1378.000000 -184.000000 -1292.000000
-1380.000000 -184.000000 -1292.000000
-1382.000000 -184.000000 -1292.000000
-1384.000000 -184.000000 -1292.000000
-1386.000000 -184.000000 -1292.000000
-1388.000000 -184.000000 -1292.000000
-1390.000000 -184.000000 -1292.000000
-1392.000000 -184.000000 -1292.000000
-1394.000000 -184.000000 -1292.000000
-1396.000000 -184.000000 -1292.000000
-1398.000000 -184.000000 -1292.000000
-1400.000000 -184.000000 -1292.000000
-1402.000000 -184.000000 -1292.000000
-1404.000000 -184.000000 -1292.000000
-1406.000000 -184.000000 -1292.000000
-1408.000000 -184.000000 -1292.000000
-1410.000000 -184.000000 -1292.000000
-1412.000000 -184.000000 -1292.000000
-1414.000000 -184.000000 -1292.000000
-1416.000000 -184.000000 -1292.000000
-1418.000000 -184.000000 -1292.000000
-1420.000000 -184.000000 -1292.000000
-1422.000000 -184.000000 -1292.000000
-1424.000000 -184.000000 -1292.000000
-1426.000000 -184.000000 -1292.000000
-1428.000000 -184.000000 -1292.000000
-1430.000000 -184.000000 -1292.000000
-1432.000000 -184.000000 -1292.000000
-1434.000000 -184.000000 -1292.000000
-1436.000000 -184.000000 -1292.000000
-1438.000000 -184.000000 -1292.000000
-1440.000000 -184.000000 -1292.000000
-1442.000000 -184.000000 -1292.000000
-1444.000000 -184.000000 -1292.000000
-1446.000000 -184.000000 -1292.000000
-1448.000000 -184.000000 -1292.000000
-1450.000000 -184.000000 -1292.000000
-1452.000000 -184.000000 -1292.000000
-1456.000000 -184.000000 -1292.000000
-1456.742781 -185.856953 -1292.000000
-1457.485563 -187.713907 -1292.000000
-1458.228344 -189.570860 -1292.000000
-1458.971125 -191.427814 -1292.000000
-1459.713907 -193.284767 -1292.000000
-1460.456688 -195.141720 -1292.000000
-1461.199469 -196.998674 -1292.000000
-1461.942251 -198.855627 -1292.000000
-1462.685032 -200.712580 -1292.000000
-1463.427814 -202.569534 -1292.000000
-1464.170595 -204.426487 -1292.000000
-1464.913376 -206.283441 -1292.000000
-1465.656158 -208.140394 -1292.000000
-1466.398939 -209.997347 -1292.000000
-1467.141720 -211.854301 -1292.000000
-1467.884502 -213.711254 -1292.000000
-1468.627283 -215.568207 -1292.000000
-1469.370064 -217.425161 -1292.000000
-1470.112846 -219.282114 -1292.000000
-1470.855627 -221.139068 -1292.000000
-1472.000000 -224.000000 -1292.000000
-1473.806442 -224.318784 -1292.796960
-1475.612884 -224.637568 -1293.593919
-1477.419326 -224.956352 -1294.390879
-1479.225767 -225.275135 -1295.187839
-1481.032209 -225.593919 -1295.984798
-1482.838651 -225.912703 -1296.781758
-1484.645093 -226.231487 -1297.578717
-1486.451535 -226.550271 -1298.375677
-1488.257977 -226.869055 -1299.172637
-1490.064419 -227.187839 -1299.969596
-1491.870860 -227.506622 -1300.766556
-1493.677302 -227.825406 -1301.563516
-1495.483744 -228.144190 -1302.360475
-1497.290186 -228.462974 -1303.157435
-1499.096628 -228.781758 -1303.954395
-1500.903070 -229.100542 -1304.751354
-1502.709512 -229.419326 -1305.548314
-1504.515953 -229.738109 -1306.345274
-1506.322395 -230.056893 -1307.142233
-1508.128837 -230.375677 -1307.939193
-1509.935279 -230.694461 -1308.736152
-1511.741721 -231.013245 -1309.533112
-1513.548163 -231.332029 -1310.330072
-1515.354605 -231.650813 -1311.127031
-1517.161046 -231.969596 -1311.923991
-1518.967488 -232.288380 -1312.720951
-1520.773930 -232.607164 -1313.517910
-1522.580372 -232.925948 -1314.314870
-1524.386814 -233.244732 -1315.111830
-1526.193256 -233.563516 -1315.908789
-1527.999698 -233.882300 -1316.705749
-1529.806139 -234.201083 -1317.502709
-1531.612581 -234.519867 -1318.299668
-1533.419023 -234.838651 -1319.096628
-1535.225465 -235.157435 -1319.893587
-1537.031907 -235.476219 -1320.690547
-1538.838349 -235.795003 -1321.487507
-1540.644791 -236.113787 -1322.284466
-1542.451232 -236.432570 -1323.081426
-1544.257674 -236.751354 -1323.878386
-1546.064116 -237.070138 -1324.675345
-1547.870558 -237.388922 -1325.472305
-1549.677000 -237.707706 -1326.269265
-1551.483442 -238.026490 -1327.066224
-1553.289884 -238.345274 -1327.863184
-1555.096325 -238.664057 -1328.660144
-1556.902767 -238.982841 -1329.457103
-1558.709209 -239.301625 -1330.254063
-1560.515651 -239.620409 -1331.051022
-1562.322093 -239.939193 -1331.847982
-1564.128535 -240.257977 -1332.644942
-1565.934977 -240.576761 -1333.441901
-1567.741418 -240.895544 -1334.238861
-1569.547860 -241.214328 -1335.035821
-1571.354302 -241.533112 -1335.832780
-1573.160744 -241.851896 -1336.629740
-1574.967186 -242.170680 -1337.426700
-1576.773628 -242.489464 -1338.223659
-1578.580070 -242.808248 -1339.020619
-1580.386511 -243.127031 -1339.817579
-1582.192953 -243.445815 -1340.614538
-1583.999395 -243.764599 -1341.411498
-1585.805837 -244.083383 -1342.208457
-1587.612279 -244.402167 -1343.005417
-1589.418721 -244.720951 -1343.802377
-1591.225163 -245.039735 -1344.599336
-1593.031604 -245.358518 -1345.396296
-1594.838046 -245.677302 -1346.193256
-1596.644488 -245.996086 -1346.990215
-1598.450930 -246.314870 -1347.787175
-1600.257372 -246.633654 -1348.584135
-1602.063814 -246.952438 -1349.381094
-1603.870256 -247.271222 -1350.178054
-1605.676697 -247.590005 -1350.975014
-1608.000000 -248.000000 -1352.000000
-1608.000000 -248.000000 -1354.000000
-1608.000000 -248.000000 -1356.000000
-1608.000000 -248.000000 -1358.000000
-1608.000000 -248.000000 -1360.000000
-1608.000000 -248.000000 -1362.000000
-1608.000000 -248.000000 -1364.000000
-1608.000000 -248.000000 -1366.000000
-1608.000000 -248.000000 -1368.000000
-1608.000000 -248.000000 -1370.000000
-1608.000000 -248.000000 -1372.000000
-1608.000000 -248.000000 -1374.000000
-1608.000000 -248.000000 -1376.000000
-1608.000000 -248.000000 -1378.000000
-1608.000000 -248.000000 -1380.000000
-1608.000000 -248.000000 -1382.000000
-1608.000000 -248.000000 -1384.000000
-1608.000000 -248.000000 -1386.000000
-1608.000000 -248.000000 -1388.000000
-1608.000000 -248.000000 -1390.000000
-1608.000000 -248.000000 -1392.000000
-1608.000000 -248.000000 -1394.000000
-1608.000000 -248.000000 -1396.000000
-1608.000000 -248.000000 -1398.000000
-1608.000000 -248.000000 -1400.000000
-1608.000000 -248.000000 -1402.000000
-1608.000000 -248.000000 -1404.000000
-1608.000000 -248.000000 -1406.000000
-1608.000000 -248.000000 -1408.000000
-1608.000000 -248.000000 -1410.000000
-1608.000000 -248.000000 -1412.000000
-1608.000000 -248.000000 -1414.000000
-1608.000000 -248.000000 -1416.000000
-1608.000000 -248.000000 -1418.000000
-1608.000000 -248.000000 -1420.000000
-1608.000000 -248.000000 -1422.000000
-1608.000000 -248.000000 -1424.000000
-1608.000000 -248.000000 -1426.000000
-1608.000000 -248.000000 -1428.000000
-1608.000000 -248.000000 -1430.000000
-1608.000000 -248.000000 -1432.000000
-1608.000000 -248.000000 -1434.000000
-1608.000000 -248.000000 -1436.000000
-1608.000000 -248.000000 -1438.000000
-1608.000000 -248.000000 -1440.000000
-1608.000000 -248.000000 -1442.000000
-1608.000000 -248.000000 -1444.000000
-1608.000000 -248.000000 -1446.000000
-1608.000000 -248.000000 -1448.000000
-1608.000000 -248.000000 -1450.000000
-1608.000000 -248.000000 -1452.000000
-1608.000000 -248.000000 -1454.000000
-1608.000000 -248.000000 -1456.000000
-1608.000000 -248.000000 -1458.000000
-1608.000000 -248.000000 -1460.000000
-1608.000000 -248.000000 -1462.000000
-1608.000000 -248.000000 -1464.000000
-1608.000000 -248.000000 -1466.000000
-1608.000000 -248.000000 -1468.000000
-1608.000000 -248.000000 -1470.000000
-1608.000000 -248.000000 -1472.000000
-1608.000000 -248.000000 -1474.000000
-1608.000000 -248.000000 -1476.000000
-1608.000000 -248.000000 -1478.000000
-1608.000000 -248.000000 -1480.000000
-1608.000000 -248.000000 -1482.000000
-1608.000000 -248.000000 -1484.000000
-1608.000000 -248.000000 -1486.000000
-1608.000000 -248.000000 -1488.000000
-1608.000000 -248.000000 -1490.000000
-1608.000000 -248.000000 -1492.000000
-1608.000000 -248.000000 -1494.000000
-1608.000000 -248.000000 -1496.000000
-1608.000000 -248.000000 -1498.000000
-1608.000000 -248.000000 -1500.000000
-1608.000000 -248.000000 -1502.000000
-1608.000000 -248.000000 -1504.000000
-1608.000000 -248.000000 -1506.000000
-1608.000000 -248.000000 -1508.000000
-1608.000000 -248.000000 -1510.000000
-1608.000000 -248.000000 -1512.000000
-1608.000000 -248.000000 -1514.000000
-1608.000000 -248.000000 -1516.000000
-1608.000000 -248.000000 -1518.000000
-1608.000000 -248.000000 -1520.000000
-1608.000000 -248.000000 -1522.000000
-1608.000000 -248.000000 -1524.000000
-1608.000000 -248.000000 -1526.000000
-1608.000000 -248.000000 -1528.000000
-1608.000000 -248.000000 -1530.000000
-1608.000000 -248.000000 -1532.000000
-1608.000000 -248.000000 -1534.000000
-1608.000000 -248.000000 -1536.000000
-1608.000000 -248.000000 -1538.000000
-1608.000000 -248.000000 -1540.000000
-1608.000000 -248.000000 -1542.000000
-1608.000000 -248.000000 -1544.000000
-1608.000000 -248.000000 -1546.000000
-1608.000000 -248.000000 -1548.000000
-1608.000000 -248.000000 -1550.000000
-1608.000000 -248.000000 -1552.000000
-1608.000000 -248.000000 -1554.000000
-1608.000000 -248.000000 -1556.000000
-1608.000000 -248.000000 -1558.000000
-1608.000000 -248.000000 -1560.000000
-1608.000000 -248.000000 -1562.000000
-1608.000000 -248.000000 -1564.000000
-1608.000000 -248.000000 -1566.000000
-1608.000000 -248.000000 -1568.000000
-1608.000000 -248.000000 -1570.000000
-1608.000000 -248.000000 -1572.000000
-1608.000000 -248.000000 -1574.000000
-1608.000000 -248.000000 -1576.000000
-1608.000000 -248.000000 -1578.000000
-1608.000000 -248.000000 -1580.000000
-1608.000000 -248.000000 -1582.000000
-1608.000000 -248.000000 -1584.000000
-1608.000000 -248.000000 -1586.000000
-1608.000000 -248.000000 -1588.000000
-1608.000000 -248.000000 -1590.000000
-1608.000000 -248.000000 -1592.000000
-1608.000000 -248.000000 -1594.000000
-1608.000000 -248.000000 -1596.000000
-1608.000000 -248.000000 -1598.000000
-1608.000000 -248.000000 -1600.000000
-1608.000000 -248.000000 -1602.000000
-1608.000000 -248.000000 -1604.000000
-1608.000000 -248.000000 -1606.000000
-1608.000000 -248.000000 -1608.000000
-1608.000000 -248.000000 -1610.000000
-1608.000000 -248.000000 -1612.000000
-1608.000000 -248.000000 -1614.000000
-1608.000000 -248.000000 -1616.000000
-1608.000000 -248.000000 -1618.000000
-1608.000000 -248.000000 -1620.000000
-1608.000000 -248.000000 -1622.000000
-1608.000000 -248.000000 -1624.000000
-1608.000000 -248.000000 -1626.000000
-1608.000000 -248.000000 -1628.000000
-1608.000000 -248.000000 -1630.000000
-1608.000000 -248.000000 -1632.000000
-1608.000000 -248.000000 -1634.000000
-1608.000000 -248.000000 -1636.000000
-1608.000000 -248.000000 -1638.000000
-1608.000000 -248.000000 -1640.000000
-1608.000000 -248.000000 -1642.000000
-1608.000000 -248.000000 -1644.000000
-1608.000000 -248.000000 -1646.000000
-1608.000000 -248.000000 -1648.000000
-1608.000000 -248.000000 -1650.000000
-1608.000000 -248.000000 -1652.000000
-1608.000000 -248.000000 -1654.000000
-1608.000000 -248.000000 -1656.000000
-1608.000000 -248.000000 -1658.000000
-1608.000000 -248.000000 -1660.000000
-1608.000000 -248.000000 -1662.000000
-1608.000000 -248.000000 -1664.000000
-1608.000000 -248.000000 -1666.000000
-1608.000000 -248.000000 -1668.000000
-1608.000000 -248.000000 -1670.000000
-1608.000000 -248.000000 -1672.000000
-1608.000000 -248.000000 -1674.000000
-1608.000000 -248.000000 -1676.000000
-1608.000000 -248.000000 -1678.000000
-1608.000000 -248.000000 -1680.000000
-1608.000000 -248.000000 -1682.000000
-1608.000000 -248.000000 -1684.000000
-1608.000000 -248.000000 -1686.000000
-1608.000000 -248.000000 -1688.000000
-1608.000000 -248.000000 -1690.000000
-1608.000000 -248.000000 -1692.000000
-1608.000000 -248.000000 -1694.000000
-1608.000000 -248.000000 -1696.000000
-1608.000000 -248.000000 -1698.000000
-1608.000000 -248.000000 -1700.000000
-1608.000000 -248.000000 -1702.000000
-1608.000000 -248.000000 -1704.000000
-1608.000000 -248.000000 -1706.000000
-1608.000000 -248.000000 -1708.000000
-1608.000000 -248.000000 -1710.000000
-1608.000000 -248.000000 -1712.000000
-1608.000000 -248.000000 -1714.000000
-1608.000000 -248.000000 -1716.000000
-1608.000000 -248.000000 -1718.000000
-1608.000000 -248.000000 -1720.000000
-1608.000000 -248.000000 -1722.000000
-1608.000000 -248.000000 -1724.000000
-1608.000000 -248.000000 -1726.000000
-1608.000000 -248.000000 -1728.000000
-1608.000000 -248.000000 -1730.000000
-1608.000000 -248.000000 -1732.000000
-1608.000000 -248.000000 -1734.000000
-1608.000000 -248.000000 -1736.000000
-1608.000000 -248.000000 -1738.000000
-1608.000000 -248.000000 -1740.000000
-1608.000000 -248.000000 -1742.000000
-1608.000000 -248.000000 -1744.000000
-1608.000000 -248.000000 -1746.000000
-1608.000000 -248.000000 -1748.000000
-1608.000000 -248.000000 -1750.000000
-1608.000000 -248.000000 -1752.000000
-1608.000000 -248.000000 -1754.000000
-1608.000000 -248.000000 -1756.000000
-1608.000000 -248.000000 -1760.000000
-1607.561603 -246.465609 -1761.205593
-1607.123205 -244.931219 -1762.411185
-1606.684808 -243.396828 -1763.616778
-1606.246411 -241.862438 -1764.822370
-1605.808014 -240.328047 -1766.027963
-1605.369616 -238.793657 -1767.233555
-1604.931219 -237.259266 -1768.439148
-1604.492822 -235.724876 -1769.644741
-1604.054424 -234.190485 -1770.850333
-1603.616027 -232.656095 -1772.055926
-1603.177630 -231.121704 -1773.261518
-1602.739232 -229.587313 -1774.467111
-1602.300835 -228.052923 -1775.672703
-1601.862438 -226.518532 -1776.878296
-1601.424041 -224.984142 -1778.083889
-1600.985643 -223.449751 -1779.289481
-1600.547246 -221.915361 -1780.495074
-1600.108849 -220.380970 -1781.700666
-1599.670451 -218.846580 -1782.906259
-1599.232054 -217.312189 -1784.111851
-1598.793657 -215.777798 -1785.317444
-1598.355259 -214.243408 -1786.523037
-1597.916862 -212.709017 -1787.728629
-1597.478465 -211.174627 -1788.934222
-1597.040068 -209.640236 -1790.139814
-1596.601670 -208.105846 -1791.345407
-1596.163273 -206.571455 -1792.550999
-1595.724876 -205.037065 -1793.756592
-1595.286478 -203.502674 -1794.962185
-1594.848081 -201.968284 -1796.167777
-1594.409684 -200.433893 -1797.373370
-1593.971286 -198.899502 -1798.578962
-1593.532889 -197.365112 -1799.784555
-1593.094492 -195.830721 -1800.990148
-1592.656095 -194.296331 -1802.195740
